ply
        format ascii 1.0
        element vertex 80479
        property float x
        property float y
        property float z
        property uchar red
        property uchar green
        property uchar blue
        end_header
12.000000 28.600000 -61.440002 1 6 2
12.200000 28.600000 -61.440002 1 5 0
12.400000 28.600000 -61.440002 2 6 2
12.600000 28.600000 -61.440002 1 5 0
12.800000 28.600000 -61.440002 1 6 2
13.000000 28.600000 -61.440002 1 5 0
13.200000 28.600000 -61.440002 1 6 2
13.400000 28.600000 -61.440002 0 4 0
13.600000 28.600000 -61.440002 2 6 2
13.800000 28.600000 -61.440002 1 5 0
14.000000 28.600000 -61.440002 1 6 2
14.200000 28.600000 -61.440002 1 5 0
14.400000 28.600000 -61.440002 2 6 2
14.600000 28.600000 -61.440002 1 5 1
14.800000 28.600000 -61.440002 2 6 2
15.000000 28.600000 -61.440002 1 5 1
15.392406 28.962025 -62.217724 2 6 2
15.594936 28.962025 -62.217724 1 5 0
15.797468 28.962025 -62.217724 2 6 2
16.000000 28.962025 -62.217724 1 5 1
16.202532 28.962025 -62.217724 1 6 2
16.405064 28.962025 -62.217724 1 5 0
16.607595 28.962025 -62.217724 1 6 2
17.025640 29.333334 -63.015388 0 5 0
17.230770 29.333334 -63.015388 2 6 2
17.435898 29.333334 -63.015388 1 5 0
17.641026 29.333334 -63.015388 2 6 2
17.846153 29.333334 -63.015388 1 4 1
18.051283 29.333334 -63.015388 2 6 2
18.256411 29.333334 -63.015388 1 5 0
18.227848 28.962025 -62.217724 2 6 2
18.430380 28.962025 -62.217724 1 5 0
18.632912 28.962025 -62.217724 2 6 2
18.835443 28.962025 -62.217724 1 4 0
19.037975 28.962025 -62.217724 2 6 2
19.240507 28.962025 -62.217724 1 4 0
19.200001 28.600000 -61.440002 2 6 2
19.400000 28.600000 -61.440002 1 4 0
19.600000 28.600000 -61.440002 2 6 2
19.799999 28.600000 -61.440002 1 4 0
20.000000 28.600000 -61.440002 1 6 2
20.200001 28.600000 -61.440002 1 5 1
20.400000 28.600000 -61.440002 1 5 1
20.600000 28.600000 -61.440002 1 5 1
20.799999 28.600000 -61.440002 1 6 2
21.000000 28.600000 -61.440002 1 5 0
21.200001 28.600000 -61.440002 1 6 2
21.400000 28.600000 -61.440002 1 4 0
21.873417 28.962025 -62.217724 1 6 2
22.075949 28.962025 -62.217724 1 5 0
22.564102 29.333334 -63.015388 2 6 2
22.769230 29.333334 -63.015388 1 5 0
22.974360 29.333334 -63.015388 2 6 2
22.886076 28.962025 -62.217724 1 5 0
23.088608 28.962025 -62.217724 1 6 2
23.291140 28.962025 -62.217724 1 5 1
23.493671 28.962025 -62.217724 1 6 1
23.696203 28.962025 -62.217724 1 5 1
23.898735 28.962025 -62.217724 2 5 2
24.101265 28.962025 -62.217724 0 4 0
24.303797 28.962025 -62.217724 1 6 2
24.506329 28.962025 -62.217724 1 5 0
24.708860 28.962025 -62.217724 1 6 2
25.230770 29.333334 -63.015388 1 5 0
25.766233 29.714285 -63.833767 1 6 1
25.974026 29.714285 -63.833767 1 5 1
26.181818 29.714285 -63.833767 1 5 1
26.389610 29.714285 -63.833767 1 5 0
26.597403 29.714285 -63.833767 1 6 2
27.157894 30.105263 -64.673683 1 5 0
27.368422 30.105263 -64.673683 1 6 2
27.578947 30.105263 -64.673683 1 5 0
28.160000 30.506666 -65.536003 2 6 2
28.373333 30.506666 -65.536003 1 5 0
28.586666 30.506666 -65.536003 2 6 2
28.799999 30.506666 -65.536003 1 5 1
29.013334 30.506666 -65.536003 1 6 2
29.621622 30.918919 -66.421623 0 4 0
29.440001 30.506666 -65.536003 2 6 2
30.054054 30.918919 -66.421623 1 5 0
30.270269 30.918919 -66.421623 1 6 2
30.486486 30.918919 -66.421623 1 4 0
30.293333 30.506666 -65.536003 2 6 2
30.105263 30.105263 -64.673683 1 4 0
30.315790 30.105263 -64.673683 1 6 2
30.526316 30.105263 -64.673683 0 5 0
30.337662 29.714285 -63.833767 2 6 2
30.545454 29.714285 -63.833767 1 4 0
31.157894 30.105263 -64.673683 2 6 2
31.786667 30.506666 -65.536003 1 5 1
32.000000 30.506666 -65.536003 2 6 2
32.213333 30.506666 -65.536003 1 4 0
32.426666 30.506666 -65.536003 1 6 2
33.534248 31.342466 -67.331512 1 4 0
45.629631 42.370369 -91.022224 1 6 2
45.925926 42.370369 -91.022224 1 4 0
47.094341 43.169811 -92.739624 1 6 2
48.307693 44.000000 -94.523079 0 5 0
48.615383 44.000000 -94.523079 2 6 2
49.882355 44.862743 -96.376472 0 5 0
54.468086 48.680851 -104.578728 2 6 2
58.545456 52.000000 -111.709099 1 5 0
74.057144 65.371429 -140.434296 1 6 2
81.500000 71.500000 -153.600006 1 4 0
82.000000 71.500000 -153.600006 2 6 2
97.777779 84.740738 -182.044449 1 5 0
102.153847 88.000000 -189.046158 1 6 2
116.173912 99.478264 -213.704361 1 4 0
128.000000 108.952377 -234.057159 2 6 2
117.565216 99.478264 -213.704361 1 5 0
35.324677 29.714285 -63.833767 1 6 2
35.532467 29.714285 -63.833767 1 5 1
36.210526 30.105263 -64.673683 1 6 2
36.421051 30.105263 -64.673683 1 5 0
36.155846 29.714285 -63.833767 2 6 2
36.363636 29.714285 -63.833767 1 5 0
36.571430 29.714285 -63.833767 1 6 2
36.779221 29.714285 -63.833767 1 5 1
36.987015 29.714285 -63.833767 1 6 2
37.194805 29.714285 -63.833767 1 4 0
37.402596 29.714285 -63.833767 1 6 2
37.610390 29.714285 -63.833767 1 5 0
37.818180 29.714285 -63.833767 1 6 2
38.025974 29.714285 -63.833767 1 5 0
-19.443037 28.759493 -62.217724 2 6 2
-19.000000 28.400000 -61.440002 1 4 0
-18.799999 28.400000 -61.440002 2 6 2
-18.600000 28.400000 -61.440002 1 4 1
-18.400000 28.400000 -61.440002 2 6 2
-18.200001 28.400000 -61.440002 1 4 1
-18.000000 28.400000 -61.440002 2 6 2
-17.799999 28.400000 -61.440002 1 5 1
-17.600000 28.400000 -61.440002 2 6 2
-17.400000 28.400000 -61.440002 1 4 0
-17.200001 28.400000 -61.440002 2 6 2
-17.000000 28.400000 -61.440002 1 4 1
-16.799999 28.400000 -61.440002 2 6 2
-16.600000 28.400000 -61.440002 1 4 0
-16.607595 28.759493 -62.217724 2 6 3
-16.405064 28.759493 -62.217724 1 4 0
-16.202532 28.759493 -62.217724 2 6 2
-16.000000 28.759493 -62.217724 1 4 0
-15.797468 28.759493 -62.217724 2 6 2
-15.594936 28.759493 -62.217724 1 4 0
-15.392406 28.759493 -62.217724 2 6 2
-15.000000 28.400000 -61.440002 1 4 1
-14.800000 28.400000 -61.440002 2 6 2
-14.600000 28.400000 -61.440002 1 4 0
-14.400000 28.400000 -61.440002 2 6 2
-14.200000 28.400000 -61.440002 1 4 1
-14.000000 28.400000 -61.440002 2 6 2
-13.800000 28.400000 -61.440002 1 4 0
-13.600000 28.400000 -61.440002 2 6 2
-13.400000 28.400000 -61.440002 1 5 0
-13.200000 28.400000 -61.440002 2 6 2
-13.000000 28.400000 -61.440002 1 4 0
-12.962026 28.759493 -62.217724 2 6 2
-12.759494 28.759493 -62.217724 1 4 0
-12.556962 28.759493 -62.217724 2 6 2
-12.354430 28.759493 -62.217724 1 4 1
-12.151898 28.759493 -62.217724 2 6 2
-11.949368 28.759493 -62.217724 1 5 0
-11.746836 28.759493 -62.217724 2 6 2
-11.544304 28.759493 -62.217724 1 4 0
-11.341772 28.759493 -62.217724 2 6 2
-11.139240 28.759493 -62.217724 1 4 0
-10.936708 28.759493 -62.217724 2 6 2
-10.734178 28.759493 -62.217724 1 5 0
-10.531646 28.759493 -62.217724 2 6 2
-10.329114 28.759493 -62.217724 1 5 0
-10.126582 28.759493 -62.217724 2 6 3
-9.924050 28.759493 -62.217724 1 5 1
-9.600000 28.400000 -61.440002 2 6 2
-9.400000 28.400000 -61.440002 1 4 0
-9.200000 28.400000 -61.440002 1 6 2
-9.000000 28.400000 -61.440002 1 4 1
-8.800000 28.400000 -61.440002 2 6 2
-8.600000 28.400000 -61.440002 1 4 1
-8.400000 28.400000 -61.440002 2 6 2
-8.200000 28.400000 -61.440002 1 5 1
-8.000000 28.400000 -61.440002 2 6 2
-7.800000 28.400000 -61.440002 1 4 0
-7.600000 28.400000 -61.440002 2 6 2
-7.400000 28.400000 -61.440002 1 4 1
-7.200000 28.400000 -61.440002 2 6 2
-7.000000 28.400000 -61.440002 1 4 0
-6.800000 28.400000 -61.440002 2 6 2
-6.683544 28.759493 -62.217724 1 4 0
-6.400000 28.400000 -61.440002 1 6 2
-6.200000 28.400000 -61.440002 1 4 0
-6.000000 28.400000 -61.440002 2 6 2
-5.873418 28.759493 -62.217724 0 4 0
-5.670886 28.759493 -62.217724 2 6 2
-5.468354 28.759493 -62.217724 1 4 1
-5.265823 28.759493 -62.217724 2 6 3
-5.063291 28.759493 -62.217724 1 4 0
-4.860759 28.759493 -62.217724 2 6 3
-4.658228 28.759493 -62.217724 1 4 0
-4.455696 28.759493 -62.217724 2 6 2
-4.200000 28.400000 -61.440002 1 4 0
-4.000000 28.400000 -61.440002 1 6 2
-3.800000 28.400000 -61.440002 1 4 0
-3.600000 28.400000 -61.440002 1 6 2
-3.400000 28.400000 -61.440002 1 5 1
-3.200000 28.400000 -61.440002 1 5 2
-3.000000 28.400000 -61.440002 1 5 1
-2.800000 28.400000 -61.440002 1 5 2
-2.600000 28.400000 -61.440002 1 4 1
-2.400000 28.400000 -61.440002 2 6 2
-2.200000 28.400000 -61.440002 1 4 0
-2.000000 28.400000 -61.440002 1 6 2
-1.800000 28.400000 -61.440002 2 5 1
-1.600000 28.400000 -61.440002 1 5 1
-1.400000 28.400000 -61.440002 1 5 1
-1.200000 28.400000 -61.440002 1 6 2
-1.012658 28.759493 -62.217724 1 5 1
-0.810127 28.759493 -62.217724 1 6 2
-0.607595 28.759493 -62.217724 1 5 1
-0.405063 28.759493 -62.217724 2 6 2
-0.202532 28.759493 -62.217724 1 4 0
0.000000 28.759493 -62.217724 1 6 2
0.202532 28.759493 -62.217724 1 4 0
0.410256 29.128204 -63.015388 2 6 2
0.615385 29.128204 -63.015388 1 4 0
0.810127 28.759493 -62.217724 2 6 2
1.012658 28.759493 -62.217724 1 4 1
1.215190 28.759493 -62.217724 2 6 2
1.417722 28.759493 -62.217724 1 4 0
1.620253 28.759493 -62.217724 2 6 2
1.822785 28.759493 -62.217724 1 4 1
2.025316 28.759493 -62.217724 2 6 2
2.227848 28.759493 -62.217724 1 4 0
2.430380 28.759493 -62.217724 2 6 3
2.632911 28.759493 -62.217724 1 4 1
2.835443 28.759493 -62.217724 2 6 2
3.037975 28.759493 -62.217724 0 4 0
3.240506 28.759493 -62.217724 1 6 2
3.443038 28.759493 -62.217724 1 4 1
3.645570 28.759493 -62.217724 2 6 2
3.848101 28.759493 -62.217724 1 4 0
4.050633 28.759493 -62.217724 2 6 2
4.253165 28.759493 -62.217724 1 4 0
4.400000 28.400000 -61.440002 2 6 2
4.600000 28.400000 -61.440002 1 4 0
4.860759 28.759493 -62.217724 2 6 2
5.063291 28.759493 -62.217724 1 4 0
5.200000 28.400000 -61.440002 2 6 2
5.400000 28.400000 -61.440002 1 4 0
5.600000 28.400000 -61.440002 2 6 2
5.800000 28.400000 -61.440002 1 4 0
6.000000 28.400000 -61.440002 2 6 2
6.200000 28.400000 -61.440002 1 4 0
6.400000 28.400000 -61.440002 1 5 2
6.600000 28.400000 -61.440002 1 4 0
6.800000 28.400000 -61.440002 1 6 2
7.000000 28.400000 -61.440002 1 4 1
7.200000 28.400000 -61.440002 1 6 2
7.400000 28.400000 -61.440002 1 4 0
7.600000 28.400000 -61.440002 1 6 2
7.800000 28.400000 -61.440002 1 4 0
8.101266 28.759493 -62.217724 1 6 2
8.303798 28.759493 -62.217724 1 4 0
8.615385 29.128204 -63.015388 2 6 2
8.820513 29.128204 -63.015388 1 5 0
9.025641 29.128204 -63.015388 14 18 10
9.230769 29.128204 -63.015388 60 58 47
9.435898 29.128204 -63.015388 53 51 42
9.641026 29.128204 -63.015388 60 55 47
9.846154 29.128204 -63.015388 58 55 47
10.051282 29.128204 -63.015388 58 54 45
10.256411 29.128204 -63.015388 58 56 45
10.461538 29.128204 -63.015388 58 53 44
10.531646 28.759493 -62.217724 57 54 45
10.734178 28.759493 -62.217724 57 53 44
10.936708 28.759493 -62.217724 56 53 45
11.139240 28.759493 -62.217724 54 51 42
11.341772 28.759493 -62.217724 54 50 43
11.544304 28.759493 -62.217724 42 39 33
11.746836 28.759493 -62.217724 21 25 16
11.949368 28.759493 -62.217724 21 25 15
12.000000 28.400000 -61.440002 31 39 26
12.200000 28.400000 -61.440002 56 55 47
12.400000 28.400000 -61.440002 56 53 44
12.600000 28.400000 -61.440002 57 54 45
12.800000 28.400000 -61.440002 56 54 46
13.000000 28.400000 -61.440002 56 54 44
13.200000 28.400000 -61.440002 58 54 46
13.400000 28.400000 -61.440002 56 52 45
13.600000 28.400000 -61.440002 57 55 45
13.800000 28.400000 -61.440002 56 52 43
14.000000 28.400000 -61.440002 56 53 45
14.200000 28.400000 -61.440002 56 52 42
14.400000 28.400000 -61.440002 58 54 46
14.600000 28.400000 -61.440002 55 51 43
14.800000 28.400000 -61.440002 50 45 39
15.000000 28.400000 -61.440002 15 16 11
15.392406 28.759493 -62.217724 5 13 7
15.594936 28.759493 -62.217724 8 15 9
15.797468 28.759493 -62.217724 6 14 8
16.000000 28.759493 -62.217724 5 10 4
16.202532 28.759493 -62.217724 4 11 6
16.405064 28.759493 -62.217724 3 10 5
16.820513 29.128204 -63.015388 7 16 9
17.025640 29.128204 -63.015388 16 21 14
17.454546 29.506493 -63.833767 18 23 17
17.662338 29.506493 -63.833767 17 22 14
17.870131 29.506493 -63.833767 18 24 16
18.077923 29.506493 -63.833767 17 23 14
18.285715 29.506493 -63.833767 17 24 16
18.256411 29.128204 -63.015388 18 24 16
18.461538 29.128204 -63.015388 19 25 17
18.666666 29.128204 -63.015388 20 25 18
18.871796 29.128204 -63.015388 22 27 19
18.835443 28.759493 -62.217724 23 26 18
19.037975 28.759493 -62.217724 23 27 20
19.240507 28.759493 -62.217724 22 26 17
19.443037 28.759493 -62.217724 23 28 19
19.400000 28.400000 -61.440002 21 28 19
19.600000 28.400000 -61.440002 24 29 20
19.799999 28.400000 -61.440002 25 30 20
20.000000 28.400000 -61.440002 25 31 21
20.200001 28.400000 -61.440002 26 29 20
20.400000 28.400000 -61.440002 26 30 21
20.600000 28.400000 -61.440002 27 29 21
20.799999 28.400000 -61.440002 25 29 21
21.000000 28.400000 -61.440002 25 29 21
21.200001 28.400000 -61.440002 28 30 21
21.400000 28.400000 -61.440002 25 29 19
21.873417 28.759493 -62.217724 26 31 22
22.358974 29.128204 -63.015388 26 29 20
22.564102 29.128204 -63.015388 27 31 21
23.064936 29.506493 -63.833767 26 29 20
23.272728 29.506493 -63.833767 27 31 23
23.480520 29.506493 -63.833767 27 29 21
23.384615 29.128204 -63.015388 28 31 23
23.589743 29.128204 -63.015388 25 28 20
23.794872 29.128204 -63.015388 25 30 22
23.696203 28.759493 -62.217724 25 28 21
23.898735 28.759493 -62.217724 27 30 23
24.101265 28.759493 -62.217724 26 29 20
24.615385 29.128204 -63.015388 25 30 23
24.820513 29.128204 -63.015388 27 30 21
25.025640 29.128204 -63.015388 27 31 22
25.558441 29.506493 -63.833767 24 28 19
25.766233 29.506493 -63.833767 27 30 22
25.974026 29.506493 -63.833767 27 30 19
26.181818 29.506493 -63.833767 26 30 21
26.389610 29.506493 -63.833767 26 29 21
26.947369 29.894737 -64.673683 26 30 23
27.157894 29.894737 -64.673683 26 29 21
27.368422 29.894737 -64.673683 25 30 22
27.946667 30.293333 -65.536003 25 29 19
28.160000 30.293333 -65.536003 27 31 22
28.373333 30.293333 -65.536003 24 29 20
28.972973 30.702703 -66.421623 26 31 21
29.189190 30.702703 -66.421623 24 29 20
29.405405 30.702703 -66.421623 26 31 22
32.716419 33.910446 -73.361198 26 29 20
39.428570 40.571430 -87.771431 26 29 22
39.714287 40.571430 -87.771431 26 29 19
41.481480 42.074074 -91.022224 27 32 22
42.566036 42.867924 -92.739624 25 29 20
42.867924 42.867924 -92.739624 26 31 22
44.862743 44.549019 -96.376472 26 30 21
47.020409 46.367348 -100.310211 26 30 21
48.333332 47.333332 -102.400002 25 28 19
48.666668 47.333332 -102.400002 27 30 21
49.000000 47.333332 -102.400002 25 28 20
49.333332 47.333332 -102.400002 25 29 21
48.653061 46.367348 -100.310211 25 28 18
48.000000 45.439999 -98.304001 26 29 20
48.320000 45.439999 -98.304001 25 28 19
48.639999 45.439999 -98.304001 26 30 21
48.959999 45.439999 -98.304001 25 28 18
50.285713 46.367348 -100.310211 26 30 21
51.666668 47.333332 -102.400002 25 28 20
53.106384 48.340427 -104.578728 25 29 21
53.446808 48.340427 -104.578728 25 27 19
53.787235 48.340427 -104.578728 25 29 21
54.127659 48.340427 -104.578728 23 27 18
59.534885 52.837208 -114.306984 24 28 20
73.599998 64.914284 -140.434296 23 27 19
81.000000 71.000000 -153.600006 24 29 21
84.129036 73.290321 -158.554840 24 28 18
87.466667 75.733330 -163.840012 26 29 21
97.777779 84.148148 -182.044449 23 28 19
102.153847 87.384613 -189.046158 24 29 21
116.173912 98.782608 -213.704361 24 28 18
128.000000 108.190475 -234.057159 23 28 20
117.565216 98.782608 -213.704361 23 28 17
108.800003 90.879997 -196.608002 25 29 19
109.440002 90.879997 -196.608002 23 27 19
152.888885 126.222221 -273.066681 23 29 20
184.533340 151.466660 -327.680023 23 28 19
232.000000 189.333328 -409.600006 23 28 19
-19.443037 28.556963 -62.217724 71 80 80
-19.000000 28.200001 -61.440002 81 86 86
-18.799999 28.200001 -61.440002 83 90 90
-18.600000 28.200001 -61.440002 92 93 90
-18.400000 28.200001 -61.440002 90 86 76
-18.200001 28.200001 -61.440002 69 67 53
-18.000000 28.200001 -61.440002 80 80 65
-17.799999 28.200001 -61.440002 108 98 89
-17.600000 28.200001 -61.440002 94 90 76
-17.400000 28.200001 -61.440002 103 96 83
-17.200001 28.200001 -61.440002 108 100 88
-17.000000 28.200001 -61.440002 112 104 90
-16.799999 28.200001 -61.440002 114 103 92
-16.600000 28.200001 -61.440002 40 41 35
-16.607595 28.556963 -62.217724 6 22 24
-16.405064 28.556963 -62.217724 34 47 57
-16.202532 28.556963 -62.217724 22 41 49
-16.000000 28.556963 -62.217724 49 59 57
-15.797468 28.556963 -62.217724 74 82 71
-15.594936 28.556963 -62.217724 37 66 50
-15.392406 28.556963 -62.217724 47 77 64
-15.000000 28.200001 -61.440002 51 72 59
-14.800000 28.200001 -61.440002 75 74 71
-14.600000 28.200001 -61.440002 34 41 47
-14.400000 28.200001 -61.440002 22 40 47
-14.200000 28.200001 -61.440002 20 32 40
-14.000000 28.200001 -61.440002 8 23 28
-13.800000 28.200001 -61.440002 10 28 34
-13.600000 28.200001 -61.440002 36 50 60
-13.400000 28.200001 -61.440002 32 46 53
-13.200000 28.200001 -61.440002 46 57 57
-13.000000 28.200001 -61.440002 78 66 59
-12.962026 28.556963 -62.217724 78 43 35
-12.759494 28.556963 -62.217724 84 46 37
-12.556962 28.556963 -62.217724 79 51 40
-12.354430 28.556963 -62.217724 77 68 61
-12.151898 28.556963 -62.217724 43 50 52
-11.949368 28.556963 -62.217724 29 44 49
-11.746836 28.556963 -62.217724 32 44 53
-11.544304 28.556963 -62.217724 10 24 32
-11.341772 28.556963 -62.217724 5 18 20
-11.139240 28.556963 -62.217724 9 24 29
-10.936708 28.556963 -62.217724 23 41 50
-10.734178 28.556963 -62.217724 28 43 49
-10.531646 28.556963 -62.217724 35 50 49
-10.329114 28.556963 -62.217724 85 70 64
-10.126582 28.556963 -62.217724 81 51 39
-9.800000 28.200001 -61.440002 85 52 42
-9.600000 28.200001 -61.440002 80 55 44
-9.400000 28.200001 -61.440002 65 61 54
-9.200000 28.200001 -61.440002 44 51 54
-9.000000 28.200001 -61.440002 38 50 53
-8.800000 28.200001 -61.440002 37 47 54
-8.600000 28.200001 -61.440002 10 24 29
-8.400000 28.200001 -61.440002 18 37 31
-8.200000 28.200001 -61.440002 76 78 70
-8.000000 28.200001 -61.440002 45 48 33
-7.800000 28.200001 -61.440002 73 73 62
-7.600000 28.200001 -61.440002 66 68 56
-7.400000 28.200001 -61.440002 73 70 60
-7.200000 28.200001 -61.440002 56 53 47
-7.000000 28.200001 -61.440002 5 9 5
-6.800000 28.200001 -61.440002 20 34 23
-6.600000 28.200001 -61.440002 81 84 73
-6.400000 28.200001 -61.440002 76 77 65
-6.200000 28.200001 -61.440002 81 78 66
-6.000000 28.200001 -61.440002 69 67 55
-5.873418 28.556963 -62.217724 42 43 27
-5.670886 28.556963 -62.217724 41 43 29
-5.468354 28.556963 -62.217724 41 43 27
-5.265823 28.556963 -62.217724 57 61 41
-5.063291 28.556963 -62.217724 116 108 89
-4.860759 28.556963 -62.217724 118 105 88
-4.658228 28.556963 -62.217724 118 105 84
-4.455696 28.556963 -62.217724 116 103 86
-4.200000 28.200001 -61.440002 118 105 87
-4.000000 28.200001 -61.440002 120 107 88
-3.800000 28.200001 -61.440002 118 105 85
-3.600000 28.200001 -61.440002 120 107 89
-3.400000 28.200001 -61.440002 119 106 86
-3.200000 28.200001 -61.440002 118 107 86
-3.000000 28.200001 -61.440002 119 103 85
-2.800000 28.200001 -61.440002 104 89 71
-2.600000 28.200001 -61.440002 75 65 42
-2.400000 28.200001 -61.440002 80 69 51
-2.200000 28.200001 -61.440002 67 54 37
-2.000000 28.200001 -61.440002 76 65 49
-1.800000 28.200001 -61.440002 73 59 48
-1.600000 28.200001 -61.440002 38 36 22
-1.417722 28.556963 -62.217724 49 45 28
-1.215190 28.556963 -62.217724 63 64 39
-1.012658 28.556963 -62.217724 53 47 26
-0.810127 28.556963 -62.217724 63 64 39
-0.607595 28.556963 -62.217724 125 114 97
-0.405063 28.556963 -62.217724 117 104 87
-0.202532 28.556963 -62.217724 120 107 91
0.000000 28.556963 -62.217724 119 108 90
0.202532 28.556963 -62.217724 117 105 87
0.410256 28.923077 -63.015388 118 108 90
0.615385 28.923077 -63.015388 117 104 87
0.810127 28.556963 -62.217724 118 106 90
1.012658 28.556963 -62.217724 117 104 85
1.215190 28.556963 -62.217724 118 106 89
1.417722 28.556963 -62.217724 116 104 87
1.620253 28.556963 -62.217724 120 106 89
1.822785 28.556963 -62.217724 119 106 87
2.025316 28.556963 -62.217724 118 106 90
2.227848 28.556963 -62.217724 118 106 86
2.430380 28.556963 -62.217724 116 103 86
2.632911 28.556963 -62.217724 100 83 73
2.835443 28.556963 -62.217724 25 27 17
3.037975 28.556963 -62.217724 17 29 12
3.240506 28.556963 -62.217724 54 60 41
3.443038 28.556963 -62.217724 83 80 62
3.645570 28.556963 -62.217724 79 75 55
3.848101 28.556963 -62.217724 121 109 95
4.050633 28.556963 -62.217724 110 104 88
4.253165 28.556963 -62.217724 117 106 91
4.400000 28.200001 -61.440002 116 106 91
4.600000 28.200001 -61.440002 116 103 88
4.860759 28.556963 -62.217724 116 106 90
5.063291 28.556963 -62.217724 113 103 87
5.265823 28.556963 -62.217724 111 103 87
5.400000 28.200001 -61.440002 112 103 87
5.600000 28.200001 -61.440002 112 103 87
5.800000 28.200001 -61.440002 110 101 87
6.000000 28.200001 -61.440002 112 102 88
6.200000 28.200001 -61.440002 111 100 85
6.400000 28.200001 -61.440002 113 103 87
6.600000 28.200001 -61.440002 114 102 87
6.800000 28.200001 -61.440002 114 104 87
7.000000 28.200001 -61.440002 111 102 86
7.200000 28.200001 -61.440002 112 102 88
7.400000 28.200001 -61.440002 110 100 85
7.600000 28.200001 -61.440002 110 102 87
7.800000 28.200001 -61.440002 109 100 86
8.101266 28.556963 -62.217724 109 101 86
8.303798 28.556963 -62.217724 108 100 83
8.506330 28.556963 -62.217724 105 97 82
8.708860 28.556963 -62.217724 107 96 81
9.025641 28.923077 -63.015388 104 96 81
9.230769 28.923077 -63.015388 98 95 78
9.435898 28.923077 -63.015388 104 99 83
9.641026 28.923077 -63.015388 109 98 83
9.846154 28.923077 -63.015388 111 101 86
10.051282 28.923077 -63.015388 109 100 85
10.256411 28.923077 -63.015388 111 102 88
10.461538 28.923077 -63.015388 110 101 85
10.531646 28.556963 -62.217724 108 100 84
10.734178 28.556963 -62.217724 107 97 82
10.936708 28.556963 -62.217724 108 99 85
11.139240 28.556963 -62.217724 104 97 82
11.341772 28.556963 -62.217724 101 93 81
11.544304 28.556963 -62.217724 85 75 65
11.746836 28.556963 -62.217724 51 49 39
11.949368 28.556963 -62.217724 35 40 27
12.000000 28.200001 -61.440002 75 78 59
12.200000 28.200001 -61.440002 119 108 95
12.400000 28.200001 -61.440002 107 98 83
12.600000 28.200001 -61.440002 112 100 85
12.800000 28.200001 -61.440002 111 100 86
13.000000 28.200001 -61.440002 109 98 84
13.200000 28.200001 -61.440002 111 101 87
13.400000 28.200001 -61.440002 108 99 85
13.600000 28.200001 -61.440002 110 99 86
13.800000 28.200001 -61.440002 110 98 84
14.000000 28.200001 -61.440002 108 100 86
14.200000 28.200001 -61.440002 106 96 83
14.400000 28.200001 -61.440002 108 99 86
14.600000 28.200001 -61.440002 106 94 83
14.800000 28.200001 -61.440002 93 79 71
15.000000 28.200001 -61.440002 24 24 17
15.392406 28.556963 -62.217724 9 20 10
15.594936 28.556963 -62.217724 15 23 16
15.797468 28.556963 -62.217724 12 22 13
16.000000 28.556963 -62.217724 8 16 10
16.202532 28.556963 -62.217724 7 16 9
16.405064 28.556963 -62.217724 7 15 8
16.820513 28.923077 -63.015388 12 24 14
17.246754 29.298702 -63.833767 30 36 26
17.454546 29.298702 -63.833767 32 39 30
17.662338 29.298702 -63.833767 33 38 28
17.870131 29.298702 -63.833767 32 40 29
18.077923 29.298702 -63.833767 33 40 30
18.285715 29.298702 -63.833767 32 39 32
18.493507 29.298702 -63.833767 33 39 28
18.461538 28.923077 -63.015388 34 42 32
18.666666 28.923077 -63.015388 37 43 30
18.871796 28.923077 -63.015388 41 47 34
19.076923 28.923077 -63.015388 41 45 33
19.037975 28.556963 -62.217724 42 49 37
19.240507 28.556963 -62.217724 44 48 38
19.443037 28.556963 -62.217724 44 48 37
19.400000 28.200001 -61.440002 40 45 33
19.600000 28.200001 -61.440002 45 50 36
19.799999 28.200001 -61.440002 51 54 40
20.000000 28.200001 -61.440002 48 51 37
20.200001 28.200001 -61.440002 49 50 36
20.400000 28.200001 -61.440002 49 52 40
20.600000 28.200001 -61.440002 48 50 38
20.799999 28.200001 -61.440002 46 50 36
21.000000 28.200001 -61.440002 46 51 34
21.468355 28.556963 -62.217724 52 56 41
21.670887 28.556963 -62.217724 47 51 36
21.873417 28.556963 -62.217724 52 54 39
22.358974 28.923077 -63.015388 51 50 37
22.857143 29.298702 -63.833767 51 53 40
23.368422 29.684210 -64.673683 50 52 39
23.893333 30.080000 -65.536003 49 54 40
24.106667 30.080000 -65.536003 48 51 36
24.000000 29.684210 -64.673683 52 53 38
24.210526 29.684210 -64.673683 48 50 36
24.421053 29.684210 -64.673683 51 53 39
24.311687 29.298702 -63.833767 47 50 36
24.519480 29.298702 -63.833767 51 52 39
24.727272 29.298702 -63.833767 52 53 38
24.935064 29.298702 -63.833767 51 54 41
25.142857 29.298702 -63.833767 51 51 37
25.350649 29.298702 -63.833767 50 53 39
25.894737 29.684210 -64.673683 49 53 37
26.105263 29.684210 -64.673683 49 53 40
26.315790 29.684210 -64.673683 48 51 38
26.526316 29.684210 -64.673683 49 54 39
26.736841 29.684210 -64.673683 48 52 37
26.947369 29.684210 -64.673683 50 55 39
27.157894 29.684210 -64.673683 49 52 37
27.733334 30.080000 -65.536003 50 53 39
27.946667 30.080000 -65.536003 48 51 36
28.540541 30.486486 -66.421623 49 54 40
28.756756 30.486486 -66.421623 50 53 36
28.972973 30.486486 -66.421623 50 53 39
29.189190 30.486486 -66.421623 48 52 37
36.266666 37.599998 -81.920006 50 52 41
39.142857 40.285713 -87.771431 49 52 39
40.888889 41.777779 -91.022224 49 53 41
41.185184 41.777779 -91.022224 49 52 39
42.264153 42.566036 -92.739624 51 54 40
43.384617 43.384617 -94.523079 47 51 36
44.549019 44.235294 -96.376472 48 52 38
47.666668 47.000000 -102.400002 49 51 36
48.000000 47.000000 -102.400002 50 52 39
48.333332 47.000000 -102.400002 50 51 37
49.702129 48.000000 -104.578728 50 52 38
50.042553 48.000000 -104.578728 50 49 37
49.333332 47.000000 -102.400002 49 52 38
49.666668 47.000000 -102.400002 49 52 36
48.979591 46.040817 -100.310211 49 52 39
48.320000 45.119999 -98.304001 48 50 38
48.639999 45.119999 -98.304001 49 53 38
49.959183 46.040817 -100.310211 49 50 36
51.333332 47.000000 -102.400002 49 51 36
53.913044 49.043480 -106.852180 48 48 36
54.260868 49.043480 -106.852180 48 51 39
54.608696 49.043480 -106.852180 49 51 38
56.177776 50.133335 -109.226669 49 52 38
59.162792 52.465115 -114.306984 49 49 36
71.111115 62.666668 -136.533340 47 51 38
78.060608 68.363640 -148.945465 48 50 36
81.000000 70.500000 -153.600006 47 52 37
81.500000 70.500000 -153.600006 45 50 35
87.466667 75.199997 -163.840012 46 51 37
88.000000 75.199997 -163.840012 48 51 35
94.857140 80.571426 -175.542862 47 50 37
98.962959 83.555557 -182.044449 46 48 35
103.384613 86.769234 -189.046158 46 51 38
100.148148 83.555557 -182.044449 46 49 35
104.615387 86.769234 -189.046158 47 51 36
118.956520 98.086960 -213.704361 45 50 33
172.000000 141.000000 -307.200012 46 50 37
230.666672 188.000000 -409.600006 45 49 33
-19.443037 28.354431 -62.217724 111 99 97
-19.000000 28.000000 -61.440002 117 103 99
-18.799999 28.000000 -61.440002 121 107 104
-18.600000 28.000000 -61.440002 128 112 109
-18.400000 28.000000 -61.440002 101 90 80
-18.200001 28.000000 -61.440002 62 58 46
-18.000000 28.000000 -61.440002 74 74 59
-17.799999 28.000000 -61.440002 108 97 85
-17.600000 28.000000 -61.440002 93 86 72
-17.400000 28.000000 -61.440002 99 88 75
-17.200001 28.000000 -61.440002 107 100 88
-17.000000 28.000000 -61.440002 106 98 85
-16.799999 28.000000 -61.440002 114 101 91
-16.600000 28.000000 -61.440002 43 42 35
-16.607595 28.354431 -62.217724 2 17 19
-16.405064 28.354431 -62.217724 30 43 54
-16.202532 28.354431 -62.217724 24 39 48
-16.000000 28.354431 -62.217724 44 54 53
-15.797468 28.354431 -62.217724 73 81 71
-15.594936 28.354431 -62.217724 34 63 48
-15.392406 28.354431 -62.217724 49 75 61
-15.189874 28.354431 -62.217724 46 68 53
-14.800000 28.000000 -61.440002 71 73 67
-14.784810 28.354431 -62.217724 34 41 44
-14.582278 28.354431 -62.217724 19 35 42
-14.200000 28.000000 -61.440002 18 31 39
-14.000000 28.000000 -61.440002 7 23 26
-13.800000 28.000000 -61.440002 8 25 31
-13.600000 28.000000 -61.440002 34 50 57
-13.400000 28.000000 -61.440002 28 42 50
-13.200000 28.000000 -61.440002 40 52 54
-13.000000 28.000000 -61.440002 80 67 58
-12.962026 28.354431 -62.217724 79 45 38
-12.759494 28.354431 -62.217724 85 46 40
-12.556962 28.354431 -62.217724 81 51 42
-12.354430 28.354431 -62.217724 76 67 60
-12.151898 28.354431 -62.217724 42 48 50
-11.949368 28.354431 -62.217724 23 39 45
-11.746836 28.354431 -62.217724 30 43 50
-11.544304 28.354431 -62.217724 10 25 30
-11.341772 28.354431 -62.217724 4 16 18
-11.139240 28.354431 -62.217724 7 24 26
-10.800000 28.000000 -61.440002 22 39 47
-10.600000 28.000000 -61.440002 26 41 46
-10.531646 28.354431 -62.217724 37 49 47
-10.329114 28.354431 -62.217724 81 68 58
-10.126582 28.354431 -62.217724 81 51 38
-9.800000 28.000000 -61.440002 85 51 40
-9.600000 28.000000 -61.440002 81 56 45
-9.400000 28.000000 -61.440002 65 59 55
-9.200000 28.000000 -61.440002 37 46 50
-9.000000 28.000000 -61.440002 34 44 54
-8.800000 28.000000 -61.440002 36 46 54
-8.600000 28.000000 -61.440002 10 23 30
-8.400000 28.000000 -61.440002 14 33 27
-8.200000 28.000000 -61.440002 69 72 64
-8.000000 28.000000 -61.440002 44 47 31
-7.800000 28.000000 -61.440002 69 67 56
-7.600000 28.000000 -61.440002 62 64 52
-7.400000 28.000000 -61.440002 69 67 57
-7.200000 28.000000 -61.440002 56 55 47
-7.000000 28.000000 -61.440002 5 7 4
-6.800000 28.000000 -61.440002 17 31 18
-6.683544 28.354431 -62.217724 79 81 68
-6.400000 28.000000 -61.440002 76 73 62
-6.278481 28.354431 -62.217724 76 73 63
-6.075949 28.354431 -62.217724 68 64 55
-5.873418 28.354431 -62.217724 40 40 27
-5.670886 28.354431 -62.217724 38 39 27
-5.468354 28.354431 -62.217724 40 40 27
-5.265823 28.354431 -62.217724 53 57 38
-5.063291 28.354431 -62.217724 112 103 85
-4.860759 28.354431 -62.217724 114 103 86
-4.658228 28.354431 -62.217724 113 100 82
-4.455696 28.354431 -62.217724 114 101 82
-4.200000 28.000000 -61.440002 115 100 82
-4.000000 28.000000 -61.440002 113 100 82
-3.800000 28.000000 -61.440002 111 99 80
-3.600000 28.000000 -61.440002 114 101 85
-3.400000 28.000000 -61.440002 113 99 81
-3.200000 28.000000 -61.440002 115 101 83
-3.000000 28.000000 -61.440002 115 98 81
-2.800000 28.000000 -61.440002 102 85 68
-2.600000 28.000000 -61.440002 74 61 40
-2.400000 28.000000 -61.440002 80 67 48
-2.200000 28.000000 -61.440002 75 62 43
-2.000000 28.000000 -61.440002 78 68 47
-1.800000 28.000000 -61.440002 76 63 47
-1.620253 28.354431 -62.217724 67 53 38
-1.417722 28.354431 -62.217724 52 43 26
-1.215190 28.354431 -62.217724 46 42 24
-1.012658 28.354431 -62.217724 45 41 22
-0.810127 28.354431 -62.217724 61 61 38
-0.607595 28.354431 -62.217724 123 109 93
-0.405063 28.354431 -62.217724 112 99 80
-0.202532 28.354431 -62.217724 115 102 83
0.000000 28.354431 -62.217724 113 101 84
0.202532 28.354431 -62.217724 114 100 84
0.405063 28.354431 -62.217724 112 101 84
0.607595 28.354431 -62.217724 112 98 82
0.810127 28.354431 -62.217724 112 100 82
1.012658 28.354431 -62.217724 111 100 79
1.215190 28.354431 -62.217724 113 102 83
1.417722 28.354431 -62.217724 113 99 80
1.620253 28.354431 -62.217724 114 102 83
1.822785 28.354431 -62.217724 112 101 81
2.025316 28.354431 -62.217724 112 102 84
2.227848 28.354431 -62.217724 111 100 81
2.430380 28.354431 -62.217724 110 98 81
2.632911 28.354431 -62.217724 97 80 68
2.835443 28.354431 -62.217724 26 26 16
3.037975 28.354431 -62.217724 13 23 7
3.240506 28.354431 -62.217724 41 46 27
3.443038 28.354431 -62.217724 60 61 41
3.645570 28.354431 -62.217724 110 99 85
3.848101 28.354431 -62.217724 105 96 80
4.050633 28.354431 -62.217724 113 102 87
4.253165 28.354431 -62.217724 111 99 84
4.400000 28.000000 -61.440002 111 100 85
4.600000 28.000000 -61.440002 110 100 84
4.860759 28.354431 -62.217724 111 102 84
5.063291 28.354431 -62.217724 109 99 81
5.265823 28.354431 -62.217724 109 99 84
5.468354 28.354431 -62.217724 109 99 82
5.600000 28.000000 -61.440002 108 99 82
5.800000 28.000000 -61.440002 108 97 81
6.000000 28.000000 -61.440002 109 99 83
6.200000 28.000000 -61.440002 107 96 80
6.400000 28.000000 -61.440002 108 98 83
6.600000 28.000000 -61.440002 107 98 82
6.800000 28.000000 -61.440002 107 99 83
7.000000 28.000000 -61.440002 107 97 81
7.200000 28.000000 -61.440002 108 98 83
7.400000 28.000000 -61.440002 107 96 80
7.600000 28.000000 -61.440002 104 96 80
7.800000 28.000000 -61.440002 102 92 77
8.101266 28.354431 -62.217724 101 93 78
8.303798 28.354431 -62.217724 98 90 76
8.506330 28.354431 -62.217724 91 85 69
8.708860 28.354431 -62.217724 69 71 52
8.911392 28.354431 -62.217724 49 60 36
9.113924 28.354431 -62.217724 43 54 29
9.316456 28.354431 -62.217724 47 62 35
9.518988 28.354431 -62.217724 63 73 50
9.721519 28.354431 -62.217724 92 92 74
9.924050 28.354431 -62.217724 107 99 83
10.256411 28.717949 -63.015388 105 96 82
10.329114 28.354431 -62.217724 106 95 81
10.531646 28.354431 -62.217724 104 95 80
10.734178 28.354431 -62.217724 106 95 80
10.936708 28.354431 -62.217724 107 97 81
11.139240 28.354431 -62.217724 102 91 78
11.341772 28.354431 -62.217724 98 87 78
11.544304 28.354431 -62.217724 69 62 51
11.746836 28.354431 -62.217724 38 41 28
11.949368 28.354431 -62.217724 41 45 29
12.000000 28.000000 -61.440002 80 81 62
12.200000 28.000000 -61.440002 114 103 89
12.400000 28.000000 -61.440002 105 96 81
12.600000 28.000000 -61.440002 107 97 84
12.800000 28.000000 -61.440002 109 99 84
13.000000 28.000000 -61.440002 108 97 82
13.200000 28.000000 -61.440002 109 98 85
13.400000 28.000000 -61.440002 107 97 83
13.600000 28.000000 -61.440002 108 97 84
13.800000 28.000000 -61.440002 108 97 82
14.000000 28.000000 -61.440002 108 98 85
14.200000 28.000000 -61.440002 105 95 82
14.400000 28.000000 -61.440002 106 96 84
14.600000 28.000000 -61.440002 104 91 80
14.800000 28.000000 -61.440002 92 75 69
15.000000 28.000000 -61.440002 26 25 16
15.392406 28.354431 -62.217724 6 16 7
15.594936 28.354431 -62.217724 15 22 14
15.797468 28.354431 -62.217724 12 21 13
16.000000 28.354431 -62.217724 9 17 10
16.202532 28.354431 -62.217724 7 15 11
16.405064 28.354431 -62.217724 6 15 9
16.820513 28.717949 -63.015388 11 24 16
17.246754 29.090910 -63.833767 31 37 26
17.454546 29.090910 -63.833767 33 39 29
17.662338 29.090910 -63.833767 32 37 25
18.105263 29.473684 -64.673683 31 39 27
18.077923 29.090910 -63.833767 32 39 26
18.285715 29.090910 -63.833767 32 40 29
18.493507 29.090910 -63.833767 32 39 27
18.461538 28.717949 -63.015388 34 43 29
18.666666 28.717949 -63.015388 36 42 30
18.871796 28.717949 -63.015388 41 46 35
19.076923 28.717949 -63.015388 41 47 32
19.037975 28.354431 -62.217724 42 47 35
19.240507 28.354431 -62.217724 42 46 34
19.200001 28.000000 -61.440002 41 49 36
19.400000 28.000000 -61.440002 39 45 33
19.600000 28.000000 -61.440002 42 48 36
19.799999 28.000000 -61.440002 49 52 40
20.000000 28.000000 -61.440002 48 53 39
20.200001 28.000000 -61.440002 48 51 37
20.400000 28.000000 -61.440002 48 51 37
20.600000 28.000000 -61.440002 46 49 35
20.799999 28.000000 -61.440002 45 49 36
21.265823 28.354431 -62.217724 43 48 34
21.468355 28.354431 -62.217724 52 54 38
21.670887 28.354431 -62.217724 47 50 36
22.153847 28.717949 -63.015388 50 52 39
22.358974 28.717949 -63.015388 49 51 37
23.157894 29.473684 -64.673683 49 51 38
23.680000 29.866667 -65.536003 49 50 38
23.893333 29.866667 -65.536003 49 51 39
25.464788 31.549295 -69.228172 48 51 40
26.434782 32.463768 -71.234787 50 52 40
26.666666 32.463768 -71.234787 50 50 36
26.898550 32.463768 -71.234787 50 52 39
26.000000 31.111111 -68.266670 48 51 37
26.222221 31.111111 -68.266670 49 52 40
27.200001 32.000000 -70.217148 48 50 36
27.428572 32.000000 -70.217148 49 52 35
26.520548 30.684931 -67.331512 50 51 37
26.739725 30.684931 -67.331512 49 52 38
28.114286 32.000000 -70.217148 48 49 36
28.342857 32.000000 -70.217148 50 50 37
27.777779 31.111111 -68.266670 50 52 37
27.616438 30.684931 -67.331512 49 51 38
27.459459 30.270269 -66.421623 47 49 36
27.675676 30.270269 -66.421623 47 51 38
27.891891 30.270269 -66.421623 49 51 39
28.108109 30.270269 -66.421623 49 53 39
28.324324 30.270269 -66.421623 51 52 36
28.931507 30.684931 -67.331512 46 51 37
29.150684 30.684931 -67.331512 48 50 36
32.484848 33.939392 -74.472733 48 53 36
36.000000 37.333332 -81.920006 47 51 36
40.296295 41.481480 -91.022224 46 52 36
40.592594 41.481480 -91.022224 48 51 36
41.660378 42.264153 -92.739624 50 52 38
41.962265 42.264153 -92.739624 49 50 38
43.921570 43.921570 -96.376472 48 51 37
44.235294 43.921570 -96.376472 48 50 36
46.367348 45.714287 -100.310211 48 52 38
47.666668 46.666668 -102.400002 48 51 36
49.021278 47.659573 -104.578728 47 51 37
49.361702 47.659573 -104.578728 48 51 36
50.782608 48.695652 -106.852180 48 51 37
51.130436 48.695652 -106.852180 48 49 35
50.382980 47.659573 -104.578728 48 52 37
49.666668 46.666668 -102.400002 45 47 36
48.979591 45.714287 -100.310211 48 49 38
48.320000 44.799999 -98.304001 47 49 34
47.686275 43.921570 -96.376472 47 51 36
48.959999 44.799999 -98.304001 48 48 36
51.333332 46.666668 -102.400002 48 51 36
53.913044 48.695652 -106.852180 46 49 33
55.466667 49.777779 -109.226669 47 52 38
55.822224 49.777779 -109.226669 45 49 36
56.177776 49.777779 -109.226669 48 50 35
59.162792 52.093021 -114.306984 48 47 33
73.142860 64.000000 -140.434296 48 50 38
80.500000 70.000000 -153.600006 47 49 34
81.000000 70.000000 -153.600006 47 51 35
86.933334 74.666664 -163.840012 45 48 32
87.466667 74.666664 -163.840012 45 51 36
88.000000 74.666664 -163.840012 45 50 34
91.586205 77.241379 -169.489655 46 50 37
95.428574 80.000000 -175.542862 47 48 34
99.555557 82.962959 -182.044449 46 50 36
100.148148 82.962959 -182.044449 45 49 34
104.615387 86.153847 -189.046158 45 48 36
109.440002 89.599998 -196.608002 46 49 36
172.000000 140.000000 -307.200012 46 49 35
-19.443037 28.151899 -62.217724 113 106 98
-19.000000 27.799999 -61.440002 121 109 98
-18.799999 27.799999 -61.440002 124 116 105
-18.600000 27.799999 -61.440002 134 121 111
-18.400000 27.799999 -61.440002 105 93 82
-18.200001 27.799999 -61.440002 65 61 48
-18.000000 27.799999 -61.440002 79 77 63
-17.799999 27.799999 -61.440002 107 97 87
-17.600000 27.799999 -61.440002 93 88 74
-17.400000 27.799999 -61.440002 104 95 83
-17.200001 27.799999 -61.440002 105 98 84
-17.000000 27.799999 -61.440002 105 98 83
-16.799999 27.799999 -61.440002 115 104 95
-16.600000 27.799999 -61.440002 48 44 42
-16.607595 28.151899 -62.217724 1 14 18
-16.405064 28.151899 -62.217724 29 45 53
-16.202532 28.151899 -62.217724 26 43 50
-16.000000 28.151899 -62.217724 42 52 53
-15.797468 28.151899 -62.217724 95 89 81
-15.594936 28.151899 -62.217724 82 74 69
-15.392406 28.151899 -62.217724 87 80 72
-15.189874 28.151899 -62.217724 86 78 69
-14.987342 28.151899 -62.217724 89 79 75
-14.784810 28.151899 -62.217724 31 38 44
-14.582278 28.151899 -62.217724 19 34 43
-14.379746 28.151899 -62.217724 19 30 39
-14.000000 27.799999 -61.440002 7 20 28
-13.800000 27.799999 -61.440002 6 25 30
-13.600000 27.799999 -61.440002 28 46 55
-13.400000 27.799999 -61.440002 31 45 52
-13.200000 27.799999 -61.440002 41 52 53
-13.000000 27.799999 -61.440002 87 80 77
-12.962026 28.151899 -62.217724 82 67 64
-12.759494 28.151899 -62.217724 84 68 63
-12.556962 28.151899 -62.217724 95 75 70
-12.354430 28.151899 -62.217724 88 77 73
-12.151898 28.151899 -62.217724 40 44 50
-11.949368 28.151899 -62.217724 26 41 48
-11.746836 28.151899 -62.217724 32 43 51
-11.544304 28.151899 -62.217724 10 23 29
-11.341772 28.151899 -62.217724 3 17 18
-11.139240 28.151899 -62.217724 6 23 27
-10.800000 27.799999 -61.440002 19 37 47
-10.600000 27.799999 -61.440002 25 39 47
-10.531646 28.151899 -62.217724 36 48 47
-10.329114 28.151899 -62.217724 85 76 70
-10.126582 28.151899 -62.217724 85 67 60
-9.800000 27.799999 -61.440002 83 65 57
-9.600000 27.799999 -61.440002 80 65 59
-9.400000 27.799999 -61.440002 71 63 60
-9.200000 27.799999 -61.440002 41 47 52
-9.000000 27.799999 -61.440002 36 47 54
-8.800000 27.799999 -61.440002 39 47 57
-8.600000 27.799999 -61.440002 10 21 29
-8.400000 27.799999 -61.440002 13 30 26
-8.200000 27.799999 -61.440002 69 71 64
-8.000000 27.799999 -61.440002 42 44 31
-7.800000 27.799999 -61.440002 71 70 58
-7.600000 27.799999 -61.440002 63 64 52
-7.400000 27.799999 -61.440002 70 69 58
-7.200000 27.799999 -61.440002 53 51 43
-7.000000 27.799999 -61.440002 5 6 5
-6.800000 27.799999 -61.440002 15 29 18
-6.683544 28.151899 -62.217724 76 78 67
-6.400000 27.799999 -61.440002 77 75 64
-6.278481 28.151899 -62.217724 78 76 63
-6.075949 28.151899 -62.217724 67 64 56
-5.873418 28.151899 -62.217724 39 40 27
-5.670886 28.151899 -62.217724 38 42 28
-5.468354 28.151899 -62.217724 40 41 26
-5.265823 28.151899 -62.217724 50 54 34
-5.063291 28.151899 -62.217724 109 101 84
-4.860759 28.151899 -62.217724 116 103 85
-4.658228 28.151899 -62.217724 114 100 82
-4.455696 28.151899 -62.217724 114 100 84
-4.200000 27.799999 -61.440002 114 100 84
-4.000000 27.799999 -61.440002 113 101 83
-3.800000 27.799999 -61.440002 113 100 82
-3.600000 27.799999 -61.440002 114 102 83
-3.400000 27.799999 -61.440002 113 98 81
-3.200000 27.799999 -61.440002 113 101 83
-3.000000 27.799999 -61.440002 113 99 80
-2.800000 27.799999 -61.440002 102 87 70
-2.600000 27.799999 -61.440002 72 63 40
-2.400000 27.799999 -61.440002 80 71 50
-2.200000 27.799999 -61.440002 76 67 45
-2.025316 28.151899 -62.217724 78 68 47
-1.822785 28.151899 -62.217724 80 69 49
-1.620253 28.151899 -62.217724 80 66 49
-1.417722 28.151899 -62.217724 65 51 35
-1.215190 28.151899 -62.217724 59 50 39
-1.012658 28.151899 -62.217724 59 52 33
-0.810127 28.151899 -62.217724 97 85 70
-0.607595 28.151899 -62.217724 115 102 85
-0.405063 28.151899 -62.217724 113 101 84
-0.202532 28.151899 -62.217724 113 100 82
0.000000 28.151899 -62.217724 114 103 83
0.202532 28.151899 -62.217724 112 99 81
0.405063 28.151899 -62.217724 113 101 82
0.607595 28.151899 -62.217724 113 99 81
0.810127 28.151899 -62.217724 114 101 83
1.012658 28.151899 -62.217724 112 100 81
1.215190 28.151899 -62.217724 113 100 83
1.417722 28.151899 -62.217724 112 99 81
1.620253 28.151899 -62.217724 115 101 84
1.800000 27.799999 -61.440002 114 99 80
2.000000 27.799999 -61.440002 113 101 84
2.227848 28.151899 -62.217724 112 98 82
2.430380 28.151899 -62.217724 112 97 84
2.632911 28.151899 -62.217724 95 77 68
2.835443 28.151899 -62.217724 28 26 16
3.037975 28.151899 -62.217724 12 22 8
3.240506 28.151899 -62.217724 42 44 28
3.443038 28.151899 -62.217724 68 69 50
3.645570 28.151899 -62.217724 125 112 100
3.848101 28.151899 -62.217724 104 93 76
4.050633 28.151899 -62.217724 111 100 85
4.253165 28.151899 -62.217724 112 100 86
4.400000 27.799999 -61.440002 110 100 84
4.600000 27.799999 -61.440002 110 99 82
4.860759 28.151899 -62.217724 110 99 83
5.063291 28.151899 -62.217724 108 97 81
5.265823 28.151899 -62.217724 109 98 84
5.468354 28.151899 -62.217724 107 96 83
5.600000 27.799999 -61.440002 108 97 84
5.800000 27.799999 -61.440002 109 96 83
6.000000 27.799999 -61.440002 109 98 83
6.200000 27.799999 -61.440002 107 96 80
6.400000 27.799999 -61.440002 109 98 82
6.600000 27.799999 -61.440002 105 95 79
6.800000 27.799999 -61.440002 107 98 83
7.000000 27.799999 -61.440002 107 96 80
7.200000 27.799999 -61.440002 107 97 82
7.400000 27.799999 -61.440002 101 91 77
7.600000 27.799999 -61.440002 99 91 77
7.800000 27.799999 -61.440002 98 90 75
8.000000 27.799999 -61.440002 95 87 72
8.200000 27.799999 -61.440002 73 73 57
8.506330 28.151899 -62.217724 45 51 33
8.708860 28.151899 -62.217724 43 47 34
8.911392 28.151899 -62.217724 37 39 28
9.113924 28.151899 -62.217724 24 31 16
9.316456 28.151899 -62.217724 27 36 21
9.518988 28.151899 -62.217724 28 40 19
9.721519 28.151899 -62.217724 39 54 29
9.924050 28.151899 -62.217724 70 80 55
10.126582 28.151899 -62.217724 105 97 80
10.329114 28.151899 -62.217724 103 94 79
10.531646 28.151899 -62.217724 106 98 82
10.734178 28.151899 -62.217724 104 95 80
10.936708 28.151899 -62.217724 105 96 82
11.139240 28.151899 -62.217724 101 92 77
11.341772 28.151899 -62.217724 93 84 73
11.544304 28.151899 -62.217724 62 58 46
11.746836 28.151899 -62.217724 53 49 40
11.949368 28.151899 -62.217724 39 45 26
12.151898 28.151899 -62.217724 94 91 74
12.354430 28.151899 -62.217724 114 102 88
12.400000 27.799999 -61.440002 106 98 82
12.600000 27.799999 -61.440002 110 98 86
12.800000 27.799999 -61.440002 108 99 85
13.000000 27.799999 -61.440002 108 96 83
13.200000 27.799999 -61.440002 109 98 86
13.400000 27.799999 -61.440002 108 97 82
13.600000 27.799999 -61.440002 106 97 83
13.800000 27.799999 -61.440002 107 96 82
14.000000 27.799999 -61.440002 106 97 84
14.200000 27.799999 -61.440002 106 96 82
14.400000 27.799999 -61.440002 107 97 83
14.600000 27.799999 -61.440002 105 91 77
14.800000 27.799999 -61.440002 94 77 68
15.000000 27.799999 -61.440002 29 25 18
15.392406 28.151899 -62.217724 5 14 6
15.594936 28.151899 -62.217724 15 21 14
15.797468 28.151899 -62.217724 12 20 14
16.000000 28.151899 -62.217724 7 15 11
16.202532 28.151899 -62.217724 8 16 12
16.615385 28.512821 -63.015388 6 15 7
16.820513 28.512821 -63.015388 10 25 16
17.246754 28.883118 -63.833767 30 38 29
17.454546 28.883118 -63.833767 31 38 30
17.894737 29.263159 -64.673683 32 38 26
18.105263 29.263159 -64.673683 32 38 27
18.315790 29.263159 -64.673683 31 38 27
18.285715 28.883118 -63.833767 33 40 28
18.493507 28.883118 -63.833767 33 39 27
18.701298 28.883118 -63.833767 35 42 30
18.666666 28.512821 -63.015388 36 43 30
18.871796 28.512821 -63.015388 40 45 34
19.076923 28.512821 -63.015388 41 45 33
19.037975 28.151899 -62.217724 44 47 36
19.240507 28.151899 -62.217724 42 45 33
19.200001 27.799999 -61.440002 41 46 37
19.400000 27.799999 -61.440002 41 45 33
19.600000 27.799999 -61.440002 44 48 36
19.799999 27.799999 -61.440002 49 51 37
20.000000 27.799999 -61.440002 46 50 38
20.200001 27.799999 -61.440002 48 49 36
20.400000 27.799999 -61.440002 47 51 37
20.600000 27.799999 -61.440002 46 47 34
20.799999 27.799999 -61.440002 44 49 37
21.265823 28.151899 -62.217724 42 45 33
21.468355 28.151899 -62.217724 52 51 40
21.670887 28.151899 -62.217724 47 49 36
22.153847 28.512821 -63.015388 49 52 38
22.358974 28.512821 -63.015388 49 51 36
23.157894 29.263159 -64.673683 47 51 37
23.680000 29.653334 -65.536003 49 51 35
25.239437 31.323944 -69.228172 50 51 38
26.202898 32.231884 -71.234787 49 48 36
26.434782 32.231884 -71.234787 51 52 38
26.666666 32.231884 -71.234787 48 48 36
26.898550 32.231884 -71.234787 49 51 39
27.130434 32.231884 -71.234787 48 49 36
26.971428 31.771429 -70.217148 50 51 37
27.200001 31.771429 -70.217148 50 50 35
27.428572 31.771429 -70.217148 51 52 38
27.657143 31.771429 -70.217148 48 50 37
28.289856 32.231884 -71.234787 50 51 38
28.521740 32.231884 -71.234787 48 51 37
28.753624 32.231884 -71.234787 47 52 36
28.571428 31.771429 -70.217148 50 53 36
28.000000 30.888889 -68.266670 48 52 36
27.835617 30.465754 -67.331512 49 52 36
27.675676 30.054054 -66.421623 50 51 39
27.891891 30.054054 -66.421623 47 49 35
28.108109 30.054054 -66.421623 48 53 39
29.521128 31.323944 -69.228172 46 51 35
31.522388 33.194031 -73.361198 49 52 38
31.761194 33.194031 -73.361198 47 50 35
32.484848 33.696968 -74.472733 48 52 39
36.000000 37.066666 -81.920006 48 49 36
37.517242 38.344826 -84.744827 48 51 36
37.793102 38.344826 -84.744827 48 48 35
41.660378 41.962265 -92.739624 49 50 36
41.962265 41.962265 -92.739624 48 50 34
43.921570 43.607841 -96.376472 47 50 37
44.235294 43.607841 -96.376472 47 49 34
44.549019 43.607841 -96.376472 48 50 38
47.666668 46.333332 -102.400002 48 49 36
48.000000 46.333332 -102.400002 47 50 36
49.361702 47.319149 -104.578728 47 50 35
50.782608 48.347828 -106.852180 49 50 39
50.042553 47.319149 -104.578728 47 49 35
49.333332 46.333332 -102.400002 49 50 37
48.653061 45.387756 -100.310211 46 49 36
47.058823 43.607841 -96.376472 46 51 37
47.372547 43.607841 -96.376472 47 49 36
45.886791 41.962265 -92.739624 47 51 39
46.188679 41.962265 -92.739624 48 50 37
46.490566 41.962265 -92.739624 47 50 36
51.666668 46.333332 -102.400002 47 49 37
54.260868 48.347828 -106.852180 47 49 35
54.608696 48.347828 -106.852180 46 48 33
54.956520 48.347828 -106.852180 46 51 37
56.533333 49.422222 -109.226669 47 49 35
80.000000 69.500000 -153.600006 48 50 36
80.500000 69.500000 -153.600006 46 49 35
86.400002 74.133331 -163.840012 44 49 34
86.933334 74.133331 -163.840012 46 46 35
87.466667 74.133331 -163.840012 46 49 36
88.000000 74.133331 -163.840012 45 46 33
91.586205 76.689651 -169.489655 47 48 36
95.428574 79.428574 -175.542862 45 48 35
99.555557 82.370369 -182.044449 46 49 33
100.148148 82.370369 -182.044449 46 47 34
104.615387 85.538460 -189.046158 47 49 36
109.440002 88.959999 -196.608002 47 48 34
